ply
format ascii 1.0
element vertex 2383
property float x
property float y
property float z
property uchar red
property uchar green
property uchar blue
end_header
951 629 1046 0 0 0
955 628 1041 0 0 0
959 628 1037 0 0 0
968 629 1037 0 0 0
973 629 1033 0 0 0
977 628 1028 0 0 0
983 629 1026 0 0 0
987 628 1021 0 0 0
991 627 1016 0 0 0
997 627 1013 0 0 0
1004 628 1011 0 0 0
1012 629 1010 0 0 0
1023 633 1012 0 0 0
1030 634 1010 0 0 0
865 518 811 0 0 0
861 513 800 0 0 0
859 509 791 0 0 0
858 506 783 0 0 0
857 503 775 0 0 0
856 499 767 0 0 0
855 496 759 0 0 0
856 494 753 0 0 0
856 492 746 0 0 0
858 490 741 0 0 0
860 489 736 0 0 0
863 489 732 0 0 0
866 488 728 0 0 0
870 487 724 0 0 0
873 487 720 0 0 0
877 487 717 0 0 0
881 486 713 0 0 0
884 486 709 0 0 0
887 485 705 0 0 0
892 486 702 0 0 0
895 485 698 0 0 0
900 485 695 0 0 0
905 486 692 0 0 0
910 486 689 0 0 0
915 486 686 0 0 0
920 487 683 0 0 0
925 487 680 0 0 0
1250 649 892 0 0 0
1252 648 885 0 0 0
1255 646 878 0 0 0
1256 644 870 0 0 0
1256 641 861 0 0 0
1247 633 846 0 0 0
1228 618 816 0 0 0
1221 612 803 0 0 0
1217 607 792 0 0 0
-1109 680 1063 0 0 0
-1100 678 1064 0 0 0
-1091 675 1064 0 0 0
-1081 673 1064 0 0 0
-1074 673 1067 0 0 0
-1066 671 1068 0 0 0
-1059 671 1071 0 0 0
-1055 672 1076 0 0 0
-1051 672 1081 0 0 0
-1045 673 1085 0 0 0
-1039 672 1088 0 0 0
-1031 671 1089 0 0 0
-1021 668 1088 0 0 0
-1012 667 1089 0 0 0
-1003 664 1088 0 0 0
-995 663 1089 0 0 0
-990 664 1094 0 0 0
-984 663 1096 0 0 0
-981 665 1103 0 0 0
-978 667 1109 0 0 0
-972 667 1112 0 0 0
-964 665 1113 0 0 0
-956 663 1113 0 0 0
-949 663 1115 0 0 0
-943 663 1118 0 0 0
-938 663 1122 0 0 0
-933 664 1126 0 0 0
-931 667 1134 0 0 0
-923 665 1134 0 0 0
-917 665 1137 0 0 0
-911 665 1139 0 0 0
-907 666 1144 0 0 0
-900 665 1146 0 0 0
-827 653 1153 0 0 0
-818 651 1151 0 0 0
-808 647 1147 0 0 0
-799 645 1145 0 0 0
-791 643 1144 0 0 0
-784 642 1145 0 0 0
-776 639 1143 0 0 0
-771 640 1146 0 0 0
-766 640 1149 0 0 0
-760 640 1152 0 0 0
-755 640 1154 0 0 0
-751 642 1159 0 0 0
-744 640 1159 0 0 0
-738 641 1162 0 0 0
-733 641 1164 0 0 0
-727 640 1166 0 0 0
-721 640 1168 0 0 0
-716 640 1170 0 0 0
-710 640 1172 0 0 0
-704 640 1174 0 0 0
-697 639 1174 0 0 0
-691 638 1175 0 0 0
-685 638 1177 0 0 0
-680 638 1179 0 0 0
-674 638 1180 0 0 0
-670 639 1185 0 0 0
-665 640 1188 0 0 0
-660 641 1192 0 0 0
-655 641 1194 0 0 0
-649 641 1196 0 0 0
-642 639 1195 0 0 0
-636 639 1196 0 0 0
-630 638 1197 0 0 0
-624 638 1198 0 0 0
-618 637 1199 0 0 0
-612 637 1201 0 0 0
-607 637 1203 0 0 0
-600 636 1203 0 0 0
-595 637 1205 0 0 0
-590 637 1208 0 0 0
-584 637 1210 0 0 0
-578 636 1209 0 0 0
-572 636 1211 0 0 0
-566 635 1211 0 0 0
-559 634 1210 0 0 0
-552 632 1208 0 0 0
-546 632 1209 0 0 0
-541 632 1211 0 0 0
-535 631 1212 0 0 0
-529 631 1212 0 0 0
-523 631 1214 0 0 0
-519 632 1217 0 0 0
-512 631 1217 0 0 0
-506 630 1217 0 0 0
-501 630 1219 0 0 0
-496 631 1222 0 0 0
-490 630 1222 0 0 0
-484 630 1223 0 0 0
-479 630 1225 0 0 0
-473 630 1225 0 0 0
-467 629 1226 0 0 0
-461 629 1226 0 0 0
-456 629 1228 0 0 0
-451 629 1229 0 0 0
-445 629 1230 0 0 0
-439 628 1229 0 0 0
-433 627 1230 0 0 0
-428 627 1231 0 0 0
-422 627 1231 0 0 0
-415 626 1230 0 0 0
-411 627 1234 0 0 0
-405 626 1234 0 0 0
-400 626 1235 0 0 0
-395 628 1240 0 0 0
-390 628 1240 0 0 0
-384 627 1240 0 0 0
-378 626 1239 0 0 0
-372 626 1240 0 0 0
-365 624 1237 0 0 0
-361 625 1241 0 0 0
-355 625 1241 0 0 0
-350 625 1242 0 0 0
-343 623 1240 0 0 0
-338 623 1241 0 0 0
-333 623 1242 0 0 0
-327 623 1243 0 0 0
-323 625 1248 0 0 0
-317 625 1248 0 0 0
-312 625 1249 0 0 0
-306 625 1249 0 0 0
-300 624 1249 0 0 0
-294 622 1246 0 0 0
-289 623 1248 0 0 0
-284 624 1251 0 0 0
-278 623 1250 0 0 0
-273 624 1252 0 0 0
-267 624 1253 0 0 0
-262 624 1254 0 0 0
-256 622 1252 0 0 0
-251 623 1253 0 0 0
-245 621 1250 0 0 0
-239 621 1251 0 0 0
-234 622 1254 0 0 0
-229 622 1255 0 0 0
-224 623 1257 0 0 0
-218 623 1259 0 0 0
-213 622 1257 0 0 0
-206 620 1253 0 0 0
-201 621 1255 0 0 0
-196 620 1255 0 0 0
-191 621 1257 0 0 0
-185 620 1256 0 0 0
-180 621 1257 0 0 0
-174 619 1255 0 0 0
-168 618 1253 0 0 0
-162 617 1251 0 0 0
-156 615 1247 0 0 0
-149 605 1228 0 0 0
-140 589 1196 0 0 0
-132 580 1177 0 0 0
-124 566 1150 0 0 0
-118 560 1139 0 0 0
-112 556 1131 0 0 0
-107 554 1127 0 0 0
-102 551 1121 0 0 0
-97 550 1118 0 0 0
-91 547 1113 0 0 0
-86 545 1110 0 0 0
-81 543 1105 0 0 0
-76 541 1102 0 0 0
-71 539 1098 0 0 0
-66 537 1094 0 0 0
-62 535 1090 0 0 0
-57 534 1088 0 0 0
-52 532 1085 0 0 0
-47 530 1081 0 0 0
-42 529 1079 0 0 0
-38 527 1074 0 0 0
-33 524 1069 0 0 0
-28 522 1064 0 0 0
-23 519 1059 0 0 0
-19 516 1053 0 0 0
-14 514 1048 0 0 0
-10 511 1042 0 0 0
-5 508 1037 0 0 0
-1 506 1032 0 0 0
4 504 1028 0 0 0
8 502 1024 0 0 0
12 500 1020 0 0 0
17 498 1016 0 0 0
21 496 1012 0 0 0
25 494 1008 0 0 0
29 492 1004 0 0 0
33 491 1000 0 0 0
38 489 996 0 0 0
42 488 994 0 0 0
46 486 991 0 0 0
50 484 987 0 0 0
54 480 978 0 0 0
57 471 960 0 0 0
60 466 949 0 0 0
64 463 943 0 0 0
67 460 936 0 0 0
71 456 928 0 0 0
74 452 919 0 0 0
77 447 910 0 0 0
81 444 903 0 0 0
84 441 897 0 0 0
87 439 892 0 0 0
91 436 886 0 0 0
94 434 882 0 0 0
98 433 880 0 0 0
101 433 879 0 0 0
105 432 877 0 0 0
109 433 879 0 0 0
113 435 882 0 0 0
118 439 891 0 0 0
122 441 894 0 0 0
127 443 898 0 0 0
131 445 901 0 0 0
155 415 836 0 0 0
156 409 825 0 0 0
164 409 824 0 0 0
166 407 818 0 0 0
169 405 815 0 0 0
176 406 815 0 0 0
183 413 828 0 0 0
192 417 836 0 0 0
194 414 829 0 0 0
200 410 821 0 0 0
207 411 820 0 0 0
211 412 823 0 0 0
217 417 831 0 0 0
220 415 827 0 0 0
224 416 829 0 0 0
236 418 831 0 0 0
246 416 824 0 0 0
256 414 818 0 0 0
285 421 826 0 0 0
300 415 810 0 0 0
306 419 817 0 0 0
311 420 819 0 0 0
323 426 829 0 0 0
326 426 827 0 0 0
329 425 825 0 0 0
339 424 819 0 0 0
348 426 821 0 0 0
350 424 816 0 0 0
360 427 819 0 0 0
370 430 823 0 0 0
375 431 824 0 0 0
391 436 831 0 0 0
393 434 825 0 0 0
399 432 820 0 0 0
406 436 826 0 0 0
426 440 829 0 0 0
428 439 825 0 0 0
432 440 825 0 0 0
437 440 825 0 0 0
441 441 824 0 0 0
444 440 821 0 0 0
453 441 820 0 0 0
454 438 814 0 0 0
461 442 819 0 0 0
466 442 819 0 0 0
467 440 813 0 0 0
479 444 817 0 0 0
797 636 1125 0 0 0
796 630 1113 0 0 0
800 629 1108 0 0 0
803 627 1102 0 0 0
808 627 1099 0 0 0
814 627 1097 0 0 0
820 628 1096 0 0 0
825 627 1092 0 0 0
833 629 1093 0 0 0
838 629 1089 0 0 0
844 630 1088 0 0 0
849 629 1084 0 0 0
854 629 1081 0 0 0
858 627 1076 0 0 0
866 629 1076 0 0 0
870 628 1072 0 0 0
874 627 1067 0 0 0
881 628 1066 0 0 0
888 629 1065 0 0 0
890 627 1058 0 0 0
895 627 1055 0 0 0
902 628 1054 0 0 0
907 627 1050 0 0 0
910 625 1044 0 0 0
917 627 1043 0 0 0
925 628 1043 0 0 0
930 628 1039 0 0 0
935 628 1036 0 0 0
944 630 1036 0 0 0
948 629 1032 0 0 0
952 628 1027 0 0 0
959 629 1025 0 0 0
965 630 1023 0 0 0
970 629 1019 0 0 0
977 630 1017 0 0 0
984 631 1015 0 0 0
987 629 1009 0 0 0
992 629 1006 0 0 0
999 630 1004 0 0 0
1004 630 1000 0 0 0
1012 631 999 0 0 0
862 521 806 0 0 0
858 515 795 0 0 0
857 512 787 0 0 0
856 509 779 0 0 0
856 506 772 0 0 0
856 504 765 0 0 0
856 501 758 0 0 0
856 498 751 0 0 0
856 497 745 0 0 0
859 495 740 0 0 0
861 494 735 0 0 0
863 493 730 0 0 0
866 492 726 0 0 0
869 492 722 0 0 0
873 491 718 0 0 0
876 490 714 0 0 0
880 491 711 0 0 0
884 490 707 0 0 0
887 490 703 0 0 0
892 490 700 0 0 0
895 489 696 0 0 0
900 490 693 0 0 0
905 490 690 0 0 0
911 491 688 0 0 0
916 491 685 0 0 0
919 491 681 0 0 0
924 491 678 0 0 0
1243 651 885 0 0 0
1244 649 877 0 0 0
1251 650 873 0 0 0
1255 649 867 0 0 0
1264 650 864 0 0 0
-1091 678 1053 0 0 0
-1085 678 1056 0 0 0
-1077 677 1058 0 0 0
-1073 677 1063 0 0 0
-1064 676 1064 0 0 0
-1056 674 1065 0 0 0
-1049 674 1068 0 0 0
-1044 674 1072 0 0 0
-1037 673 1074 0 0 0
-1029 672 1076 0 0 0
-1023 672 1079 0 0 0
-1013 669 1078 0 0 0
-1008 670 1082 0 0 0
-999 667 1082 0 0 0
-992 667 1084 0 0 0
-986 666 1087 0 0 0
-979 666 1089 0 0 0
-973 666 1092 0 0 0
-967 665 1095 0 0 0
-961 665 1098 0 0 0
-955 665 1100 0 0 0
-948 664 1102 0 0 0
-942 664 1105 0 0 0
-938 665 1110 0 0 0
-935 667 1116 0 0 0
-928 666 1118 0 0 0
-925 668 1124 0 0 0
-917 667 1125 0 0 0
-910 666 1126 0 0 0
-902 664 1126 0 0 0
-899 666 1132 0 0 0
-893 666 1135 0 0 0
-808 648 1134 0 0 0
-799 645 1132 0 0 0
-791 643 1131 0 0 0
-783 641 1130 0 0 0
-776 640 1130 0 0 0
-768 639 1130 0 0 0
-763 639 1133 0 0 0
-759 640 1137 0 0 0
-754 641 1141 0 0 0
-748 640 1142 0 0 0
-742 640 1144 0 0 0
-735 639 1144 0 0 0
-731 640 1148 0 0 0
-725 639 1149 0 0 0
-720 640 1153 0 0 0
-716 641 1158 0 0 0
-710 641 1159 0 0 0
-704 641 1161 0 0 0
-700 642 1165 0 0 0
-693 640 1164 0 0 0
-686 639 1164 0 0 0
-681 639 1167 0 0 0
-676 640 1170 0 0 0
-669 639 1170 0 0 0
-666 641 1176 0 0 0
-661 641 1179 0 0 0
-656 643 1183 0 0 0
-650 642 1184 0 0 0
-645 642 1186 0 0 0
-638 640 1185 0 0 0
-631 639 1185 0 0 0
-626 639 1187 0 0 0
-619 638 1187 0 0 0
-613 638 1188 0 0 0
-608 639 1191 0 0 0
-603 639 1194 0 0 0
-597 638 1194 0 0 0
-591 638 1196 0 0 0
-586 639 1199 0 0 0
-580 638 1198 0 0 0
-573 637 1198 0 0 0
-567 636 1199 0 0 0
-561 635 1199 0 0 0
-555 634 1199 0 0 0
-549 634 1200 0 0 0
-543 633 1200 0 0 0
-537 632 1200 0 0 0
-531 633 1202 0 0 0
-525 632 1202 0 0 0
-520 632 1203 0 0 0
-515 632 1206 0 0 0
-509 631 1206 0 0 0
-504 632 1209 0 0 0
-498 632 1210 0 0 0
-493 632 1212 0 0 0
-487 632 1213 0 0 0
-482 632 1215 0 0 0
-476 631 1214 0 0 0
-470 630 1214 0 0 0
-464 630 1214 0 0 0
-458 629 1214 0 0 0
-452 628 1214 0 0 0
-447 629 1216 0 0 0
-441 628 1217 0 0 0
-435 628 1217 0 0 0
-430 628 1219 0 0 0
-425 629 1221 0 0 0
-419 628 1221 0 0 0
-413 627 1220 0 0 0
-409 629 1225 0 0 0
-403 628 1225 0 0 0
-398 629 1227 0 0 0
-393 631 1232 0 0 0
-387 629 1231 0 0 0
-381 628 1230 0 0 0
-375 627 1229 0 0 0
-370 627 1230 0 0 0
-363 625 1227 0 0 0
-358 627 1231 0 0 0
-353 627 1232 0 0 0
-347 626 1232 0 0 0
-341 625 1230 0 0 0
-336 625 1231 0 0 0
-330 625 1232 0 0 0
-325 625 1234 0 0 0
-321 627 1238 0 0 0
-315 626 1238 0 0 0
-309 626 1238 0 0 0
-303 625 1237 0 0 0
-297 623 1235 0 0 0
-291 621 1232 0 0 0
-286 622 1234 0 0 0
-281 624 1238 0 0 0
-276 624 1239 0 0 0
-271 624 1241 0 0 0
-266 625 1244 0 0 0
-261 626 1245 0 0 0
-255 624 1243 0 0 0
-249 623 1242 0 0 0
-243 621 1239 0 0 0
-237 622 1240 0 0 0
-232 623 1243 0 0 0
-227 622 1243 0 0 0
-222 623 1245 0 0 0
-217 624 1248 0 0 0
-211 624 1247 0 0 0
-205 622 1244 0 0 0
-200 623 1247 0 0 0
-195 623 1247 0 0 0
-189 623 1248 0 0 0
-184 621 1245 0 0 0
-178 621 1246 0 0 0
-172 620 1244 0 0 0
-167 620 1244 0 0 0
-161 617 1239 0 0 0
-155 613 1232 0 0 0
-146 598 1201 0 0 0
-137 581 1168 0 0 0
-129 571 1147 0 0 0
-122 562 1131 0 0 0
-117 560 1126 0 0 0
-112 558 1122 0 0 0
-107 556 1120 0 0 0
-101 554 1116 0 0 0
-96 553 1113 0 0 0
-91 550 1108 0 0 0
-86 548 1105 0 0 0
-81 546 1101 0 0 0
-76 545 1098 0 0 0
-71 543 1094 0 0 0
-66 541 1090 0 0 0
-61 538 1086 0 0 0
-57 537 1083 0 0 0
-52 535 1080 0 0 0
-47 534 1077 0 0 0
-42 532 1074 0 0 0
-38 530 1070 0 0 0
-33 528 1065 0 0 0
-28 525 1060 0 0 0
-23 523 1055 0 0 0
-19 519 1048 0 0 0
-14 517 1043 0 0 0
-10 514 1037 0 0 0
-5 511 1032 0 0 0
-1 509 1028 0 0 0
4 507 1024 0 0 0
8 505 1020 0 0 0
12 503 1016 0 0 0
17 501 1012 0 0 0
21 499 1007 0 0 0
25 496 1002 0 0 0
29 494 998 0 0 0
33 493 995 0 0 0
37 492 992 0 0 0
42 491 990 0 0 0
46 489 987 0 0 0
50 487 983 0 0 0
53 482 973 0 0 0
56 473 954 0 0 0
60 469 946 0 0 0
64 466 940 0 0 0
67 463 934 0 0 0
71 460 926 0 0 0
74 455 917 0 0 0
77 450 907 0 0 0
80 447 900 0 0 0
84 444 894 0 0 0
87 441 888 0 0 0
90 438 881 0 0 0
94 436 877 0 0 0
97 435 874 0 0 0
101 434 872 0 0 0
104 433 871 0 0 0
108 435 873 0 0 0
112 436 876 0 0 0
117 440 884 0 0 0
122 443 888 0 0 0
126 444 891 0 0 0
158 416 830 0 0 0
161 415 827 0 0 0
164 413 824 0 0 0
175 407 809 0 0 0
183 416 826 0 0 0
191 418 829 0 0 0
199 413 817 0 0 0
213 419 827 0 0 0
227 418 823 0 0 0
241 424 833 0 0 0
276 426 831 0 0 0
280 427 832 0 0 0
292 418 810 0 0 0
307 423 817 0 0 0
320 431 830 0 0 0
325 433 834 0 0 0
327 431 829 0 0 0
330 430 825 0 0 0
335 432 828 0 0 0
341 430 822 0 0 0
349 435 831 0 0 0
367 434 823 0 0 0
372 436 826 0 0 0
377 437 827 0 0 0
382 438 828 0 0 0
387 440 831 0 0 0
390 439 828 0 0 0
393 438 824 0 0 0
398 439 825 0 0 0
402 440 825 0 0 0
413 443 829 0 0 0
417 444 829 0 0 0
420 443 826 0 0 0
425 444 827 0 0 0
429 444 825 0 0 0
434 445 826 0 0 0
438 445 826 0 0 0
442 445 824 0 0 0
445 445 822 0 0 0
448 444 819 0 0 0
453 445 819 0 0 0
457 445 818 0 0 0
463 447 821 0 0 0
467 447 819 0 0 0
467 444 812 0 0 0
470 442 808 0 0 0
789 639 1122 0 0 0
787 633 1109 0 0 0
789 630 1101 0 0 0
793 629 1097 0 0 0
796 627 1091 0 0 0
800 626 1087 0 0 0
806 627 1085 0 0 0
814 628 1085 0 0 0
820 629 1083 0 0 0
828 631 1084 0 0 0
832 630 1080 0 0 0
837 629 1076 0 0 0
842 629 1073 0 0 0
846 628 1069 0 0 0
849 626 1063 0 0 0
857 629 1064 0 0 0
864 629 1062 0 0 0
867 628 1057 0 0 0
873 628 1055 0 0 0
882 631 1056 0 0 0
885 629 1050 0 0 0
891 629 1048 0 0 0
897 630 1046 0 0 0
901 629 1041 0 0 0
904 627 1035 0 0 0
909 627 1032 0 0 0
915 627 1030 0 0 0
922 628 1028 0 0 0
928 629 1026 0 0 0
936 630 1025 0 0 0
943 631 1024 0 0 0
947 630 1019 0 0 0
952 630 1016 0 0 0
957 630 1012 0 0 0
962 629 1008 0 0 0
969 631 1007 0 0 0
974 630 1003 0 0 0
979 630 999 0 0 0
985 630 996 0 0 0
990 630 993 0 0 0
993 629 987 0 0 0
1001 630 986 0 0 0
1010 632 986 0 0 0
871 533 820 0 0 0
859 524 802 0 0 0
855 518 791 0 0 0
855 516 784 0 0 0
854 513 776 0 0 0
854 510 769 0 0 0
855 508 763 0 0 0
855 505 756 0 0 0
855 503 749 0 0 0
856 501 743 0 0 0
858 499 738 0 0 0
859 497 732 0 0 0
863 497 728 0 0 0
865 496 723 0 0 0
869 496 720 0 0 0
872 495 716 0 0 0
877 495 713 0 0 0
880 495 709 0 0 0
884 494 705 0 0 0
888 494 702 0 0 0
892 494 698 0 0 0
896 494 695 0 0 0
901 494 692 0 0 0
907 495 690 0 0 0
912 496 687 0 0 0
917 496 684 0 0 0
921 496 680 0 0 0
927 497 678 0 0 0
1237 654 878 0 0 0
1235 650 868 0 0 0
1241 650 863 0 0 0
1250 652 861 0 0 0
-1085 680 1044 0 0 0
-1079 680 1048 0 0 0
-1074 681 1053 0 0 0
-1068 680 1056 0 0 0
-1059 679 1057 0 0 0
-1052 678 1059 0 0 0
-1045 677 1061 0 0 0
-1036 675 1062 0 0 0
-1030 675 1065 0 0 0
-1024 674 1068 0 0 0
-1018 674 1071 0 0 0
-1009 672 1071 0 0 0
-1003 672 1074 0 0 0
-994 670 1074 0 0 0
-986 668 1075 0 0 0
-978 667 1076 0 0 0
-971 666 1078 0 0 0
-965 666 1081 0 0 0
-959 665 1083 0 0 0
-951 664 1084 0 0 0
-946 664 1088 0 0 0
-941 665 1092 0 0 0
-936 665 1096 0 0 0
-932 667 1101 0 0 0
-927 667 1105 0 0 0
-922 667 1108 0 0 0
-914 666 1109 0 0 0
-908 665 1111 0 0 0
-903 666 1115 0 0 0
-895 664 1115 0 0 0
-890 665 1119 0 0 0
-885 666 1123 0 0 0
-863 662 1125 0 0 0
-852 658 1121 0 0 0
-811 652 1126 0 0 0
-800 648 1122 0 0 0
-791 645 1119 0 0 0
-783 643 1118 0 0 0
-774 640 1116 0 0 0
-767 639 1116 0 0 0
-760 637 1116 0 0 0
-757 639 1122 0 0 0
-752 640 1125 0 0 0
-747 640 1128 0 0 0
-741 640 1130 0 0 0
-737 641 1134 0 0 0
-730 640 1134 0 0 0
-725 640 1137 0 0 0
-719 639 1138 0 0 0
-714 640 1141 0 0 0
-711 642 1147 0 0 0
-704 641 1148 0 0 0
-699 641 1150 0 0 0
-694 642 1154 0 0 0
-687 641 1153 0 0 0
-679 638 1150 0 0 0
-673 637 1151 0 0 0
-666 637 1152 0 0 0
-662 637 1155 0 0 0
-657 638 1159 0 0 0
-653 639 1163 0 0 0
-650 641 1169 0 0 0
-644 641 1171 0 0 0
-638 641 1172 0 0 0
-632 640 1172 0 0 0
-626 640 1174 0 0 0
-619 638 1173 0 0 0
-613 638 1174 0 0 0
-607 637 1175 0 0 0
-602 638 1178 0 0 0
-598 639 1181 0 0 0
-592 638 1182 0 0 0
-586 638 1184 0 0 0
-581 639 1186 0 0 0
-575 638 1186 0 0 0
-567 636 1184 0 0 0
-562 636 1186 0 0 0
-556 635 1187 0 0 0
-550 634 1186 0 0 0
-544 634 1187 0 0 0
-538 633 1188 0 0 0
-532 633 1188 0 0 0
-526 632 1188 0 0 0
-521 632 1190 0 0 0
-515 631 1190 0 0 0
-510 632 1193 0 0 0
-503 631 1192 0 0 0
-498 631 1194 0 0 0
-493 631 1196 0 0 0
-489 632 1200 0 0 0
-484 633 1203 0 0 0
-478 633 1204 0 0 0
-472 631 1202 0 0 0
-466 631 1202 0 0 0
-459 629 1201 0 0 0
-453 628 1200 0 0 0
-447 627 1199 0 0 0
-442 628 1203 0 0 0
-437 629 1205 0 0 0
-432 628 1206 0 0 0
-427 629 1209 0 0 0
-422 629 1210 0 0 0
-415 628 1208 0 0 0
-409 626 1207 0 0 0
-404 627 1210 0 0 0
-398 627 1210 0 0 0
-394 628 1213 0 0 0
-390 630 1219 0 0 0
-384 630 1220 0 0 0
-378 629 1219 0 0 0
-373 628 1219 0 0 0
-367 628 1220 0 0 0
-361 626 1217 0 0 0
-356 627 1220 0 0 0
-350 627 1221 0 0 0
-345 627 1221 0 0 0
-339 626 1220 0 0 0
-333 626 1221 0 0 0
-328 626 1222 0 0 0
-323 626 1223 0 0 0
-318 627 1226 0 0 0
-312 626 1225 0 0 0
-307 626 1226 0 0 0
-301 625 1225 0 0 0
-295 624 1224 0 0 0
-289 623 1222 0 0 0
-284 623 1224 0 0 0
-279 624 1227 0 0 0
-274 624 1227 0 0 0
-269 625 1229 0 0 0
-263 625 1231 0 0 0
-258 625 1232 0 0 0
-252 624 1231 0 0 0
-247 624 1230 0 0 0
-241 621 1226 0 0 0
-235 622 1228 0 0 0
-230 623 1230 0 0 0
-225 622 1230 0 0 0
-220 623 1232 0 0 0
-215 625 1236 0 0 0
-210 624 1236 0 0 0
-204 623 1234 0 0 0
-199 624 1236 0 0 0
-193 622 1234 0 0 0
-187 622 1233 0 0 0
-182 620 1231 0 0 0
-176 621 1232 0 0 0
-171 620 1231 0 0 0
-165 619 1230 0 0 0
-159 614 1221 0 0 0
-151 605 1202 0 0 0
-144 597 1187 0 0 0
-135 578 1151 0 0 0
-127 566 1127 0 0 0
-121 562 1118 0 0 0
-116 560 1116 0 0 0
-111 559 1114 0 0 0
-106 559 1114 0 0 0
-101 557 1111 0 0 0
-96 556 1108 0 0 0
-91 553 1103 0 0 0
-86 551 1100 0 0 0
-81 549 1095 0 0 0
-76 547 1092 0 0 0
-71 545 1088 0 0 0
-66 543 1084 0 0 0
-61 541 1080 0 0 0
-56 540 1078 0 0 0
-52 538 1075 0 0 0
-47 537 1072 0 0 0
-42 535 1069 0 0 0
-37 533 1064 0 0 0
-33 530 1059 0 0 0
-28 527 1054 0 0 0
-23 525 1049 0 0 0
-19 522 1044 0 0 0
-14 519 1038 0 0 0
-10 517 1033 0 0 0
-5 514 1028 0 0 0
-1 512 1024 0 0 0
4 510 1020 0 0 0
8 509 1017 0 0 0
12 507 1013 0 0 0
16 504 1008 0 0 0
21 502 1003 0 0 0
25 499 998 0 0 0
29 497 994 0 0 0
33 496 991 0 0 0
37 495 988 0 0 0
42 494 986 0 0 0
46 492 982 0 0 0
50 490 978 0 0 0
53 483 965 0 0 0
56 474 947 0 0 0
60 471 940 0 0 0
64 469 936 0 0 0
67 466 930 0 0 0
71 463 923 0 0 0
74 458 914 0 0 0
77 454 905 0 0 0
80 450 898 0 0 0
84 447 891 0 0 0
87 444 884 0 0 0
90 440 877 0 0 0
93 438 872 0 0 0
97 437 869 0 0 0
100 436 867 0 0 0
104 435 866 0 0 0
108 436 867 0 0 0
112 437 869 0 0 0
116 441 876 0 0 0
121 443 880 0 0 0
125 445 883 0 0 0
158 420 830 0 0 0
161 419 827 0 0 0
164 417 823 0 0 0
187 421 827 0 0 0
201 412 807 0 0 0
205 414 810 0 0 0
217 417 815 0 0 0
222 419 818 0 0 0
224 416 812 0 0 0
233 419 816 0 0 0
238 423 822 0 0 0
242 423 822 0 0 0
274 428 825 0 0 0
277 426 822 0 0 0
280 426 820 0 0 0
284 425 818 0 0 0
285 423 812 0 0 0
289 423 812 0 0 0
293 423 811 0 0 0
295 421 807 0 0 0
299 422 807 0 0 0
305 424 811 0 0 0
310 426 813 0 0 0
321 432 822 0 0 0
325 432 821 0 0 0
327 429 816 0 0 0
334 434 824 0 0 0
338 435 824 0 0 0
350 440 832 0 0 0
353 439 830 0 0 0
356 438 826 0 0 0
360 438 826 0 0 0
393 442 824 0 0 0
400 446 829 0 0 0
407 448 833 0 0 0
413 452 838 0 0 0
415 449 832 0 0 0
419 449 831 0 0 0
422 448 828 0 0 0
426 448 827 0 0 0
428 446 822 0 0 0
434 449 825 0 0 0
440 451 828 0 0 0
444 451 826 0 0 0
447 450 823 0 0 0
451 450 822 0 0 0
454 449 819 0 0 0
458 450 819 0 0 0
462 450 818 0 0 0
465 449 814 0 0 0
467 447 810 0 0 0
469 446 806 0 0 0
473 446 805 0 0 0
483 448 805 0 0 0
777 635 1102 0 0 0
779 632 1095 0 0 0
784 632 1092 0 0 0
790 632 1090 0 0 0
792 629 1083 0 0 0
794 627 1076 0 0 0
800 627 1074 0 0 0
806 628 1073 0 0 0
812 628 1071 0 0 0
819 630 1071 0 0 0
824 630 1068 0 0 0
829 629 1064 0 0 0
834 629 1061 0 0 0
837 627 1055 0 0 0
839 625 1049 0 0 0
848 627 1050 0 0 0
855 629 1050 0 0 0
859 627 1045 0 0 0
867 629 1045 0 0 0
876 632 1047 0 0 0
879 630 1041 0 0 0
885 630 1039 0 0 0
890 630 1035 0 0 0
892 628 1029 0 0 0
895 626 1023 0 0 0
899 625 1019 0 0 0
906 626 1017 0 0 0
913 627 1016 0 0 0
921 629 1016 0 0 0
928 630 1015 0 0 0
934 630 1012 0 0 0
936 628 1005 0 0 0
944 630 1005 0 0 0
948 629 1000 0 0 0
953 629 997 0 0 0
963 632 998 0 0 0
969 633 996 0 0 0
972 631 990 0 0 0
979 632 988 0 0 0
985 632 985 0 0 0
985 629 977 0 0 0
990 629 973 0 0 0
999 631 973 0 0 0
865 535 813 0 0 0
857 527 798 0 0 0
854 522 788 0 0 0
854 520 781 0 0 0
854 517 774 0 0 0
855 515 768 0 0 0
855 512 761 0 0 0
855 510 754 0 0 0
856 508 748 0 0 0
857 506 742 0 0 0
858 504 736 0 0 0
860 502 731 0 0 0
862 501 726 0 0 0
866 500 722 0 0 0
869 500 718 0 0 0
872 499 714 0 0 0
877 499 711 0 0 0
880 499 707 0 0 0
885 499 704 0 0 0
888 499 700 0 0 0
893 499 697 0 0 0
897 499 694 0 0 0
902 499 691 0 0 0
908 500 689 0 0 0
913 501 686 0 0 0
918 501 683 0 0 0
930 503 678 0 0 0
1228 655 869 0 0 0
1226 651 859 0 0 0
1231 651 854 0 0 0
-1055 681 1050 0 0 0
-1049 682 1054 0 0 0
-1046 683 1060 0 0 0
-1038 682 1061 0 0 0
-1030 681 1063 0 0 0
-1022 679 1064 0 0 0
-1013 677 1064 0 0 0
-1002 673 1062 0 0 0
-996 673 1065 0 0 0
-988 671 1065 0 0 0
-981 670 1067 0 0 0
-972 668 1067 0 0 0
-965 667 1069 0 0 0
-960 668 1073 0 0 0
-953 667 1074 0 0 0
-944 665 1074 0 0 0
-939 665 1078 0 0 0
-935 666 1083 0 0 0
-930 666 1086 0 0 0
-925 667 1090 0 0 0
-921 668 1095 0 0 0
-915 668 1098 0 0 0
-907 666 1098 0 0 0
-901 666 1100 0 0 0
-897 667 1105 0 0 0
-889 665 1105 0 0 0
-802 650 1112 0 0 0
-793 647 1109 0 0 0
-783 644 1106 0 0 0
-775 642 1105 0 0 0
-769 641 1106 0 0 0
-761 639 1105 0 0 0
-755 638 1106 0 0 0
-752 640 1112 0 0 0
-746 640 1114 0 0 0
-740 639 1115 0 0 0
-735 640 1118 0 0 0
-732 642 1124 0 0 0
-726 642 1126 0 0 0
-721 642 1128 0 0 0
-715 641 1130 0 0 0
-709 641 1132 0 0 0
-704 642 1135 0 0 0
-698 641 1135 0 0 0
-693 641 1138 0 0 0
-688 642 1141 0 0 0
-681 640 1141 0 0 0
-674 639 1140 0 0 0
-668 639 1142 0 0 0
-662 638 1143 0 0 0
-658 639 1146 0 0 0
-653 640 1150 0 0 0
-647 639 1150 0 0 0
-643 640 1155 0 0 0
-638 641 1158 0 0 0
-633 641 1160 0 0 0
-627 641 1162 0 0 0
-622 642 1165 0 0 0
-617 641 1166 0 0 0
-610 640 1165 0 0 0
-604 639 1166 0 0 0
-598 639 1168 0 0 0
-593 639 1170 0 0 0
-587 638 1170 0 0 0
-582 640 1174 0 0 0
-576 639 1174 0 0 0
-570 638 1175 0 0 0
-564 637 1174 0 0 0
-558 636 1175 0 0 0
-552 635 1175 0 0 0
-546 635 1175 0 0 0
-540 634 1176 0 0 0
-534 633 1176 0 0 0
-528 632 1176 0 0 0
-522 632 1177 0 0 0
-516 632 1178 0 0 0
-510 631 1178 0 0 0
-506 632 1181 0 0 0
-500 632 1183 0 0 0
-496 633 1186 0 0 0
-490 633 1187 0 0 0
-486 634 1191 0 0 0
-481 634 1193 0 0 0
-475 634 1194 0 0 0
-468 632 1191 0 0 0
-462 631 1191 0 0 0
-456 630 1191 0 0 0
-450 630 1191 0 0 0
-444 628 1190 0 0 0
-440 630 1194 0 0 0
-435 631 1197 0 0 0
-429 630 1197 0 0 0
-424 630 1199 0 0 0
-419 631 1202 0 0 0
-413 630 1200 0 0 0
-407 629 1199 0 0 0
-402 629 1201 0 0 0
-396 628 1201 0 0 0
-390 628 1201 0 0 0
-386 630 1206 0 0 0
-381 630 1207 0 0 0
-375 630 1208 0 0 0
-370 629 1208 0 0 0
-364 629 1209 0 0 0
-358 628 1208 0 0 0
-353 628 1209 0 0 0
-348 628 1210 0 0 0
-342 627 1209 0 0 0
-336 626 1208 0 0 0
-331 626 1209 0 0 0
-325 626 1210 0 0 0
-320 626 1212 0 0 0
-316 628 1215 0 0 0
-310 627 1215 0 0 0
-305 627 1216 0 0 0
-299 626 1215 0 0 0
-293 626 1215 0 0 0
-288 625 1214 0 0 0
-283 625 1216 0 0 0
-277 625 1217 0 0 0
-273 627 1220 0 0 0
-267 627 1222 0 0 0
-262 628 1224 0 0 0
-257 628 1225 0 0 0
-251 627 1224 0 0 0
-246 626 1223 0 0 0
-239 624 1219 0 0 0
-234 624 1220 0 0 0
-229 624 1221 0 0 0
-224 624 1222 0 0 0
-219 625 1223 0 0 0
-214 626 1227 0 0 0
-208 626 1227 0 0 0
-203 625 1226 0 0 0
-197 625 1226 0 0 0
-192 625 1226 0 0 0
-187 624 1226 0 0 0
-181 622 1223 0 0 0
-175 622 1223 0 0 0
-170 621 1222 0 0 0
-164 619 1218 0 0 0
-157 611 1202 0 0 0
-148 597 1176 0 0 0
-140 585 1153 0 0 0
-132 570 1122 0 0 0
-126 565 1113 0 0 0
-120 563 1109 0 0 0
-115 561 1107 0 0 0
-111 561 1107 0 0 0
-106 561 1106 0 0 0
-101 559 1104 0 0 0
-96 558 1101 0 0 0
-91 556 1098 0 0 0
-86 554 1095 0 0 0
-81 552 1090 0 0 0
-76 550 1087 0 0 0
-71 548 1083 0 0 0
-66 546 1079 0 0 0
-61 544 1075 0 0 0
-56 543 1073 0 0 0
-51 541 1070 0 0 0
-47 540 1067 0 0 0
-42 538 1064 0 0 0
-37 535 1059 0 0 0
-33 533 1054 0 0 0
-28 531 1050 0 0 0
-23 528 1044 0 0 0
-19 525 1039 0 0 0
-14 523 1034 0 0 0
-10 519 1028 0 0 0
-5 517 1023 0 0 0
-1 515 1019 0 0 0
4 513 1015 0 0 0
8 511 1012 0 0 0
12 509 1008 0 0 0
16 507 1003 0 0 0
21 505 999 0 0 0
25 502 994 0 0 0
29 500 990 0 0 0
33 499 987 0 0 0
37 497 984 0 0 0
41 497 982 0 0 0
45 495 979 0 0 0
50 493 975 0 0 0
53 487 962 0 0 0
56 478 945 0 0 0
60 474 937 0 0 0
63 472 933 0 0 0
67 469 927 0 0 0
70 465 919 0 0 0
74 461 911 0 0 0
77 457 903 0 0 0
80 453 895 0 0 0
83 450 887 0 0 0
87 447 881 0 0 0
90 443 873 0 0 0
93 440 867 0 0 0
96 438 863 0 0 0
100 438 862 0 0 0
103 437 861 0 0 0
107 437 861 0 0 0
111 438 862 0 0 0
116 441 868 0 0 0
120 443 872 0 0 0
124 444 873 0 0 0
156 418 817 0 0 0
197 415 806 0 0 0
212 417 806 0 0 0
297 427 810 0 0 0
395 447 825 0 0 0
401 451 830 0 0 0
413 455 835 0 0 0
420 454 831 0 0 0
423 453 828 0 0 0
427 453 827 0 0 0
430 453 825 0 0 0
435 454 826 0 0 0
441 456 829 0 0 0
444 455 825 0 0 0
447 454 822 0 0 0
451 450 813 0 0 0
459 451 811 0 0 0
462 450 808 0 0 0
464 448 803 0 0 0
469 449 804 0 0 0
486 448 794 0 0 0
769 634 1089 0 0 0
767 628 1077 0 0 0
777 631 1080 0 0 0
782 631 1077 0 0 0
784 628 1070 0 0 0
786 626 1063 0 0 0
793 627 1063 0 0 0
798 627 1060 0 0 0
806 629 1061 0 0 0
812 630 1060 0 0 0
818 630 1058 0 0 0
822 629 1053 0 0 0
828 629 1051 0 0 0
830 627 1045 0 0 0
833 625 1039 0 0 0
840 626 1038 0 0 0
849 629 1040 0 0 0
854 629 1037 0 0 0
860 629 1035 0 0 0
872 634 1040 0 0 0
876 633 1035 0 0 0
880 632 1031 0 0 0
884 631 1026 0 0 0
886 629 1020 0 0 0
890 628 1015 0 0 0
895 628 1012 0 0 0
901 628 1010 0 0 0
909 630 1010 0 0 0
918 633 1011 0 0 0
924 633 1008 0 0 0
928 632 1004 0 0 0
930 630 997 0 0 0
937 630 995 0 0 0
941 630 991 0 0 0
948 631 989 0 0 0
957 633 990 0 0 0
964 634 988 0 0 0
967 633 983 0 0 0
973 633 980 0 0 0
979 634 977 0 0 0
979 630 969 0 0 0
981 628 962 0 0 0
983 626 955 0 0 0
862 537 808 0 0 0
857 531 796 0 0 0
854 527 786 0 0 0
854 524 779 0 0 0
854 521 772 0 0 0
854 518 765 0 0 0
855 516 759 0 0 0
856 514 753 0 0 0
856 512 746 0 0 0
857 510 740 0 0 0
859 508 735 0 0 0
861 507 730 0 0 0
863 506 725 0 0 0
865 505 720 0 0 0
869 504 716 0 0 0
873 504 713 0 0 0
876 504 709 0 0 0
881 504 706 0 0 0
886 504 703 0 0 0
889 503 699 0 0 0
895 504 697 0 0 0
899 504 693 0 0 0
905 505 691 0 0 0
911 506 689 0 0 0
916 506 686 0 0 0
922 507 684 0 0 0
927 508 681 0 0 0
1203 647 849 0 0 0
1198 641 837 0 0 0
-1048 683 1041 0 0 0
-1045 684 1047 0 0 0
-1041 686 1053 0 0 0
-1032 684 1053 0 0 0
-1025 683 1055 0 0 0
-1017 681 1056 0 0 0
-1007 678 1055 0 0 0
-997 675 1054 0 0 0
-992 676 1058 0 0 0
-983 674 1058 0 0 0
-976 673 1060 0 0 0
-967 670 1059 0 0 0
-961 670 1062 0 0 0
-954 669 1064 0 0 0
-946 667 1064 0 0 0
-938 666 1065 0 0 0
-933 667 1069 0 0 0
-929 668 1074 0 0 0
-926 669 1079 0 0 0
-922 670 1084 0 0 0
-917 671 1088 0 0 0
-911 671 1091 0 0 0
-903 669 1091 0 0 0
-895 667 1091 0 0 0
-889 667 1094 0 0 0
-881 665 1093 0 0 0
-876 666 1097 0 0 0
-791 647 1095 0 0 0
-785 646 1096 0 0 0
-776 643 1094 0 0 0
-769 642 1094 0 0 0
-763 642 1096 0 0 0
-756 640 1096 0 0 0
-749 639 1096 0 0 0
-746 641 1102 0 0 0
-741 642 1105 0 0 0
-735 640 1105 0 0 0
-731 642 1110 0 0 0
-727 643 1115 0 0 0
-720 641 1114 0 0 0
-714 641 1115 0 0 0
-709 641 1118 0 0 0
-702 640 1118 0 0 0
-696 640 1120 0 0 0
-692 640 1123 0 0 0
-687 641 1126 0 0 0
-682 641 1129 0 0 0
-676 641 1130 0 0 0
-670 640 1131 0 0 0
-664 640 1132 0 0 0
-658 639 1133 0 0 0
-653 639 1136 0 0 0
-648 640 1139 0 0 0
-642 639 1139 0 0 0
-637 640 1143 0 0 0
-632 640 1145 0 0 0
-627 640 1147 0 0 0
-621 640 1148 0 0 0
-617 641 1152 0 0 0
-611 641 1154 0 0 0
-606 641 1156 0 0 0
-600 641 1157 0 0 0
-595 641 1159 0 0 0
-589 640 1160 0 0 0
-583 639 1160 0 0 0
-577 639 1162 0 0 0
-571 638 1162 0 0 0
-565 638 1163 0 0 0
-559 637 1162 0 0 0
-554 637 1164 0 0 0
-547 636 1164 0 0 0
-541 634 1163 0 0 0
-536 635 1165 0 0 0
-530 634 1165 0 0 0
-524 633 1166 0 0 0
-518 633 1166 0 0 0
-514 634 1170 0 0 0
-507 633 1169 0 0 0
-503 634 1174 0 0 0
-498 635 1176 0 0 0
-494 636 1180 0 0 0
-488 635 1180 0 0 0
-484 637 1184 0 0 0
-478 636 1185 0 0 0
-473 636 1186 0 0 0
-466 634 1184 0 0 0
-461 634 1185 0 0 0
-455 634 1186 0 0 0
-449 633 1185 0 0 0
-443 632 1185 0 0 0
-438 633 1188 0 0 0
-432 632 1188 0 0 0
-426 631 1187 0 0 0
-421 632 1189 0 0 0
-416 631 1190 0 0 0
-409 630 1188 0 0 0
-403 629 1187 0 0 0
-398 629 1189 0 0 0
-393 628 1189 0 0 0
-387 628 1190 0 0 0
-383 630 1195 0 0 0
-378 631 1197 0 0 0
-373 630 1197 0 0 0
-367 630 1198 0 0 0
-362 630 1199 0 0 0
-356 629 1198 0 0 0
-351 629 1199 0 0 0
-345 629 1200 0 0 0
-340 628 1199 0 0 0
-334 627 1199 0 0 0
-329 627 1200 0 0 0
-323 627 1201 0 0 0
-318 628 1203 0 0 0
-314 629 1206 0 0 0
-308 629 1206 0 0 0
-303 629 1208 0 0 0
-297 628 1206 0 0 0
-292 627 1206 0 0 0
-286 627 1207 0 0 0
-281 627 1208 0 0 0
-276 627 1208 0 0 0
-271 628 1210 0 0 0
-265 628 1211 0 0 0
-260 628 1212 0 0 0
-255 629 1214 0 0 0
-250 628 1214 0 0 0
-244 627 1213 0 0 0
-238 626 1212 0 0 0
-233 627 1213 0 0 0
-228 626 1213 0 0 0
-223 626 1214 0 0 0
-217 627 1215 0 0 0
-213 628 1218 0 0 0
-207 627 1217 0 0 0
-202 627 1217 0 0 0
-196 626 1216 0 0 0
-191 626 1216 0 0 0
-185 625 1216 0 0 0
-180 625 1215 0 0 0
-175 624 1215 0 0 0
-169 623 1213 0 0 0
-162 617 1202 0 0 0
-154 605 1179 0 0 0
-145 588 1147 0 0 0
-137 575 1122 0 0 0
-130 568 1108 0 0 0
-124 564 1101 0 0 0
-119 563 1099 0 0 0
-115 563 1099 0 0 0
-110 562 1098 0 0 0
-105 562 1098 0 0 0
-100 561 1096 0 0 0
-95 560 1094 0 0 0
-90 558 1091 0 0 0
-85 557 1089 0 0 0
-80 555 1085 0 0 0
-75 553 1081 0 0 0
-70 551 1078 0 0 0
-66 549 1074 0 0 0
-61 547 1070 0 0 0
-56 546 1068 0 0 0
-51 543 1064 0 0 0
-47 542 1062 0 0 0
-42 541 1059 0 0 0
-37 538 1054 0 0 0
-32 536 1049 0 0 0
-28 533 1045 0 0 0
-23 530 1039 0 0 0
-19 528 1034 0 0 0
-14 525 1029 0 0 0
-10 523 1024 0 0 0
-5 520 1019 0 0 0
-1 519 1016 0 0 0
4 516 1011 0 0 0
8 514 1007 0 0 0
12 512 1003 0 0 0
16 510 999 0 0 0
21 507 994 0 0 0
25 506 991 0 0 0
29 504 987 0 0 0
33 502 984 0 0 0
37 501 981 0 0 0
41 499 978 0 0 0
45 497 974 0 0 0
49 495 969 0 0 0
53 489 957 0 0 0
56 481 941 0 0 0
60 477 933 0 0 0
63 475 929 0 0 0
67 472 924 0 0 0
70 469 917 0 0 0
74 464 908 0 0 0
77 460 900 0 0 0
80 456 892 0 0 0
83 453 885 0 0 0
86 449 877 0 0 0
89 445 869 0 0 0
92 442 863 0 0 0
96 440 859 0 0 0
99 440 858 0 0 0
103 439 857 0 0 0
107 439 856 0 0 0
110 440 857 0 0 0
115 441 860 0 0 0
119 445 867 0 0 0
123 445 867 0 0 0
128 450 876 0 0 0
133 455 885 0 0 0
164 415 802 0 0 0
177 421 812 0 0 0
184 422 814 0 0 0
188 422 813 0 0 0
193 425 818 0 0 0
196 423 814 0 0 0
198 422 811 0 0 0
201 420 807 0 0 0
207 424 814 0 0 0
209 421 807 0 0 0
212 421 806 0 0 0
216 422 808 0 0 0
221 425 813 0 0 0
229 426 813 0 0 0
234 429 819 0 0 0
254 433 822 0 0 0
265 431 817 0 0 0
274 434 821 0 0 0
284 433 816 0 0 0
290 431 810 0 0 0
296 434 816 0 0 0
318 439 821 0 0 0
327 442 824 0 0 0
338 446 830 0 0 0
341 446 829 0 0 0
351 449 833 0 0 0
354 447 828 0 0 0
361 447 825 0 0 0
363 445 821 0 0 0
370 449 826 0 0 0
393 458 839 0 0 0
397 459 839 0 0 0
399 456 833 0 0 0
405 459 837 0 0 0
413 459 834 0 0 0
415 457 830 0 0 0
420 458 831 0 0 0
422 456 825 0 0 0
427 458 827 0 0 0
432 459 828 0 0 0
436 459 827 0 0 0
440 459 826 0 0 0
442 457 821 0 0 0
444 455 815 0 0 0
447 454 812 0 0 0
448 452 807 0 0 0
454 454 809 0 0 0
459 455 810 0 0 0
464 456 811 0 0 0
468 456 809 0 0 0
473 457 809 0 0 0
476 457 807 0 0 0
481 457 807 0 0 0
483 456 803 0 0 0
486 455 800 0 0 0
764 630 1070 0 0 0
772 632 1071 0 0 0
777 632 1068 0 0 0
781 631 1064 0 0 0
782 628 1056 0 0 0
788 629 1055 0 0 0
793 628 1051 0 0 0
801 630 1052 0 0 0
806 630 1049 0 0 0
812 631 1048 0 0 0
819 632 1047 0 0 0
824 632 1044 0 0 0
828 631 1040 0 0 0
831 629 1035 0 0 0
838 630 1034 0 0 0
846 632 1034 0 0 0
850 631 1030 0 0 0
854 631 1026 0 0 0
865 634 1029 0 0 0
869 633 1025 0 0 0
874 633 1022 0 0 0
878 632 1017 0 0 0
881 631 1012 0 0 0
884 629 1006 0 0 0
890 629 1004 0 0 0
894 629 1000 0 0 0
900 629 998 0 0 0
908 631 998 0 0 0
915 632 996 0 0 0
918 631 991 0 0 0
920 628 984 0 0 0
928 630 984 0 0 0
935 631 982 0 0 0
941 632 980 0 0 0
951 635 982 0 0 0
958 636 980 0 0 0
963 635 976 0 0 0
966 634 971 0 0 0
968 632 964 0 0 0
964 626 952 0 0 0
960 620 939 0 0 0
870 550 821 0 0 0
860 540 804 0 0 0
856 535 793 0 0 0
854 531 784 0 0 0
854 528 777 0 0 0
854 526 770 0 0 0
854 523 763 0 0 0
855 521 757 0 0 0
856 519 751 0 0 0
857 517 745 0 0 0
859 515 740 0 0 0
860 513 734 0 0 0
862 512 729 0 0 0
864 511 724 0 0 0
866 509 719 0 0 0
870 509 715 0 0 0
873 508 711 0 0 0
878 508 708 0 0 0
882 509 705 0 0 0
886 508 701 0 0 0
890 508 698 0 0 0
895 509 695 0 0 0
901 510 693 0 0 0
906 510 690 0 0 0
912 511 688 0 0 0
918 512 686 0 0 0
925 513 684 0 0 0
934 516 684 0 0 0
-1040 683 1031 0 0 0
-1039 686 1039 0 0 0
-1036 688 1045 0 0 0
-1027 686 1045 0 0 0
-1017 683 1045 0 0 0
-1010 683 1047 0 0 0
-999 678 1044 0 0 0
-991 677 1045 0 0 0
-985 677 1048 0 0 0
-976 674 1048 0 0 0
-969 674 1050 0 0 0
-961 672 1050 0 0 0
-956 672 1054 0 0 0
-950 672 1057 0 0 0
-942 671 1058 0 0 0
-935 669 1059 0 0 0
-930 670 1063 0 0 0
-925 670 1067 0 0 0
-922 672 1073 0 0 0
-917 672 1076 0 0 0
-912 673 1080 0 0 0
-905 672 1082 0 0 0
-898 671 1083 0 0 0
-890 669 1083 0 0 0
-886 671 1088 0 0 0
-878 668 1087 0 0 0
-873 669 1091 0 0 0
-864 666 1089 0 0 0
-856 664 1089 0 0 0
-821 654 1083 0 0 0
-810 650 1079 0 0 0
-804 649 1080 0 0 0
-791 647 1082 0 0 0
-787 649 1087 0 0 0
-781 649 1089 0 0 0
-773 646 1087 0 0 0
-765 644 1086 0 0 0
-759 643 1087 0 0 0
-751 642 1087 0 0 0
-745 641 1088 0 0 0
-742 642 1093 0 0 0
-737 643 1096 0 0 0
-731 642 1097 0 0 0
-726 642 1100 0 0 0
-722 644 1105 0 0 0
-716 643 1106 0 0 0
-710 643 1107 0 0 0
-705 644 1111 0 0 0
-697 641 1109 0 0 0
-691 640 1109 0 0 0
-687 641 1113 0 0 0
-682 642 1116 0 0 0
-677 642 1119 0 0 0
-672 643 1122 0 0 0
-666 642 1123 0 0 0
-660 641 1124 0 0 0
-654 641 1125 0 0 0
-649 641 1127 0 0 0
-644 641 1129 0 0 0
-638 640 1130 0 0 0
-632 640 1132 0 0 0
-626 640 1133 0 0 0
-621 640 1135 0 0 0
-615 639 1136 0 0 0
-612 641 1141 0 0 0
-606 641 1143 0 0 0
-602 642 1146 0 0 0
-596 642 1148 0 0 0
-591 642 1149 0 0 0
-584 640 1148 0 0 0
-577 638 1147 0 0 0
-571 638 1148 0 0 0
-566 638 1149 0 0 0
-560 637 1150 0 0 0
-554 636 1150 0 0 0
-548 636 1151 0 0 0
-542 635 1151 0 0 0
-536 634 1150 0 0 0
-531 634 1153 0 0 0
-525 634 1153 0 0 0
-519 633 1154 0 0 0
-514 634 1156 0 0 0
-510 635 1160 0 0 0
-504 633 1159 0 0 0
-500 635 1164 0 0 0
-495 636 1167 0 0 0
-491 637 1170 0 0 0
-484 636 1169 0 0 0
-480 637 1173 0 0 0
-475 637 1174 0 0 0
-469 636 1174 0 0 0
-462 635 1173 0 0 0
-457 635 1175 0 0 0
-452 635 1176 0 0 0
-446 634 1175 0 0 0
-440 634 1176 0 0 0
-435 634 1178 0 0 0
-430 634 1179 0 0 0
-424 633 1178 0 0 0
-419 634 1181 0 0 0
-413 633 1181 0 0 0
-407 632 1180 0 0 0
-401 631 1179 0 0 0
-396 631 1181 0 0 0
-391 630 1181 0 0 0
-385 630 1182 0 0 0
-380 631 1184 0 0 0
-375 631 1186 0 0 0
-370 631 1186 0 0 0
-364 630 1186 0 0 0
-359 631 1188 0 0 0
-354 630 1188 0 0 0
-348 630 1189 0 0 0
-343 629 1188 0 0 0
-337 628 1188 0 0 0
-332 628 1189 0 0 0
-326 628 1190 0 0 0
-321 628 1191 0 0 0
-316 629 1193 0 0 0
-311 629 1194 0 0 0
-306 629 1195 0 0 0
-300 629 1195 0 0 0
-295 628 1194 0 0 0
-289 628 1195 0 0 0
-285 629 1198 0 0 0
-279 629 1199 0 0 0
-275 630 1201 0 0 0
-270 630 1203 0 0 0
-264 629 1202 0 0 0
-258 628 1201 0 0 0
-253 630 1204 0 0 0
-248 630 1205 0 0 0
-243 630 1206 0 0 0
-237 628 1203 0 0 0
-232 628 1204 0 0 0
-226 626 1201 0 0 0
-221 627 1203 0 0 0
-215 626 1202 0 0 0
-210 627 1204 0 0 0
-205 627 1205 0 0 0
-200 627 1206 0 0 0
-195 626 1205 0 0 0
-189 626 1205 0 0 0
-184 626 1205 0 0 0
-179 626 1205 0 0 0
-173 625 1205 0 0 0
-167 621 1197 0 0 0
-161 619 1193 0 0 0
-154 610 1177 0 0 0
-142 581 1122 0 0 0
-134 571 1102 0 0 0
-129 566 1094 0 0 0
-123 564 1090 0 0 0
-119 563 1089 0 0 0
-114 564 1090 0 0 0
-109 563 1089 0 0 0
-104 563 1089 0 0 0
-99 562 1087 0 0 0
-95 561 1086 0 0 0
-90 560 1084 0 0 0
-85 559 1082 0 0 0
-80 557 1079 0 0 0
-75 556 1077 0 0 0
-70 554 1073 0 0 0
-65 552 1069 0 0 0
-61 550 1066 0 0 0
-56 548 1062 0 0 0
-51 547 1060 0 0 0
-46 545 1057 0 0 0
-42 543 1053 0 0 0
-37 540 1048 0 0 0
-32 538 1043 0 0 0
-28 536 1039 0 0 0
-23 532 1033 0 0 0
-19 530 1029 0 0 0
-14 528 1024 0 0 0
-10 525 1019 0 0 0
-5 523 1015 0 0 0
-1 521 1011 0 0 0
4 518 1006 0 0 0
8 517 1003 0 0 0
12 515 999 0 0 0
16 512 994 0 0 0
21 511 991 0 0 0
25 509 987 0 0 0
29 507 983 0 0 0
33 505 980 0 0 0
37 504 977 0 0 0
41 502 974 0 0 0
45 500 970 0 0 0
49 498 966 0 0 0
53 491 952 0 0 0
56 483 937 0 0 0
59 479 929 0 0 0
63 478 926 0 0 0
67 475 920 0 0 0
70 472 914 0 0 0
74 468 906 0 0 0
77 463 897 0 0 0
80 460 890 0 0 0
83 456 882 0 0 0
86 451 873 0 0 0
89 447 865 0 0 0
92 444 859 0 0 0
95 442 855 0 0 0
99 442 853 0 0 0
103 441 852 0 0 0
106 441 852 0 0 0
110 442 852 0 0 0
114 443 854 0 0 0
118 446 859 0 0 0
122 446 860 0 0 0
127 450 867 0 0 0
132 453 872 0 0 0
170 426 814 0 0 0
211 422 800 0 0 0
227 426 805 0 0 0
268 434 814 0 0 0
275 435 813 0 0 0
290 434 809 0 0 0
314 444 822 0 0 0
316 441 816 0 0 0
334 450 829 0 0 0
344 453 833 0 0 0
348 454 834 0 0 0
350 446 818 0 0 0
355 449 821 0 0 0
357 446 816 0 0 0
369 451 823 0 0 0
388 457 828 0 0 0
393 458 829 0 0 0
396 457 826 0 0 0
405 463 835 0 0 0
412 467 841 0 0 0
414 464 835 0 0 0
417 463 832 0 0 0
421 463 830 0 0 0
421 459 823 0 0 0
425 459 821 0 0 0
428 459 819 0 0 0
432 459 818 0 0 0
435 458 815 0 0 0
438 457 812 0 0 0
441 455 808 0 0 0
444 455 806 0 0 0
446 453 802 0 0 0
451 454 802 0 0 0
455 454 801 0 0 0
459 455 800 0 0 0
462 454 798 0 0 0
468 456 799 0 0 0
471 455 796 0 0 0
475 456 796 0 0 0
478 455 793 0 0 0
482 455 791 0 0 0
486 452 783 0 0 0
755 633 1066 0 0 0
758 631 1060 0 0 0
766 633 1061 0 0 0
771 633 1058 0 0 0
775 632 1054 0 0 0
776 628 1046 0 0 0
782 629 1044 0 0 0
786 628 1040 0 0 0
794 630 1041 0 0 0
799 630 1039 0 0 0
808 632 1040 0 0 0
814 633 1039 0 0 0
819 633 1036 0 0 0
823 632 1032 0 0 0
828 632 1028 0 0 0
833 632 1026 0 0 0
840 633 1025 0 0 0
846 634 1023 0 0 0
849 632 1018 0 0 0
858 634 1019 0 0 0
862 634 1015 0 0 0
867 634 1012 0 0 0
868 630 1004 0 0 0
872 630 1000 0 0 0
874 627 993 0 0 0
879 627 990 0 0 0
882 625 984 0 0 0
887 625 981 0 0 0
893 626 979 0 0 0
898 626 976 0 0 0
902 624 971 0 0 0
906 624 967 0 0 0
916 627 969 0 0 0
923 628 968 0 0 0
932 631 968 0 0 0
943 635 971 0 0 0
947 634 967 0 0 0
949 632 960 0 0 0
948 627 950 0 0 0
943 621 937 0 0 0
930 609 916 0 0 0
915 596 893 0 0 0
896 580 867 0 0 0
881 568 845 0 0 0
871 558 827 0 0 0
864 550 813 0 0 0
859 544 801 0 0 0
856 539 791 0 0 0
855 536 783 0 0 0
854 533 775 0 0 0
854 530 768 0 0 0
854 527 761 0 0 0
855 525 755 0 0 0
856 523 749 0 0 0
858 522 744 0 0 0
860 520 739 0 0 0
861 518 733 0 0 0
863 517 728 0 0 0
864 515 722 0 0 0
867 514 718 0 0 0
871 514 714 0 0 0
874 513 710 0 0 0
877 513 706 0 0 0
882 513 703 0 0 0
887 513 700 0 0 0
891 513 697 0 0 0
896 514 694 0 0 0
902 515 692 0 0 0
907 515 689 0 0 0
915 517 688 0 0 0
921 518 686 0 0 0
929 520 685 0 0 0
937 522 684 0 0 0
-1033 684 1021 0 0 0
-1033 688 1031 0 0 0
-1031 691 1038 0 0 0
-1024 690 1040 0 0 0
-995 682 1038 0 0 0
-987 680 1039 0 0 0
-978 678 1039 0 0 0
-972 678 1042 0 0 0
-966 677 1044 0 0 0
-958 675 1045 0 0 0
-952 675 1048 0 0 0
-947 676 1052 0 0 0
-939 674 1052 0 0 0
-932 673 1054 0 0 0
-926 672 1056 0 0 0
-922 674 1061 0 0 0
-917 674 1065 0 0 0
-913 675 1069 0 0 0
-906 674 1071 0 0 0
-902 676 1076 0 0 0
-895 674 1077 0 0 0
-886 672 1076 0 0 0
-880 671 1078 0 0 0
-871 669 1077 0 0 0
-846 663 1075 0 0 0
-831 659 1075 0 0 0
-821 656 1072 0 0 0
-813 654 1071 0 0 0
-805 651 1070 0 0 0
-799 650 1071 0 0 0
-792 650 1072 0 0 0
-787 650 1075 0 0 0
-783 651 1080 0 0 0
-777 650 1081 0 0 0
-771 650 1083 0 0 0
-763 648 1082 0 0 0
-756 647 1082 0 0 0
-748 644 1080 0 0 0
-742 644 1082 0 0 0
-737 644 1084 0 0 0
-733 645 1088 0 0 0
-727 644 1089 0 0 0
-724 647 1096 0 0 0
-719 647 1099 0 0 0
-713 646 1100 0 0 0
-707 646 1101 0 0 0
-703 647 1105 0 0 0
-693 643 1100 0 0 0
-686 641 1100 0 0 0
-683 643 1105 0 0 0
-677 643 1107 0 0 0
-671 642 1108 0 0 0
-667 643 1112 0 0 0
-662 643 1114 0 0 0
-655 642 1114 0 0 0
-651 643 1117 0 0 0
-646 643 1120 0 0 0
-640 643 1121 0 0 0
-635 643 1123 0 0 0
-629 642 1124 0 0 0
-623 642 1125 0 0 0
-618 642 1128 0 0 0
-613 642 1130 0 0 0
-609 644 1134 0 0 0
-604 644 1136 0 0 0
-599 644 1139 0 0 0
-593 644 1140 0 0 0
-587 644 1141 0 0 0
-581 643 1141 0 0 0
-575 642 1141 0 0 0
-569 641 1141 0 0 0
-563 640 1142 0 0 0
-557 639 1142 0 0 0
-551 639 1143 0 0 0
-546 638 1144 0 0 0
-540 638 1144 0 0 0
-533 636 1143 0 0 0
-528 636 1145 0 0 0
-522 635 1144 0 0 0
-516 635 1145 0 0 0
-511 634 1146 0 0 0
-507 636 1150 0 0 0
-501 635 1151 0 0 0
-497 637 1156 0 0 0
-492 638 1158 0 0 0
-487 638 1160 0 0 0
-481 637 1159 0 0 0
-477 639 1164 0 0 0
-471 637 1163 0 0 0
-466 638 1165 0 0 0
-460 637 1165 0 0 0
-455 637 1167 0 0 0
-450 638 1169 0 0 0
-444 637 1169 0 0 0
-439 637 1170 0 0 0
-433 636 1171 0 0 0
-428 636 1171 0 0 0
-422 635 1171 0 0 0
-418 637 1175 0 0 0
-412 636 1176 0 0 0
-407 636 1176 0 0 0
-401 635 1175 0 0 0
-395 635 1176 0 0 0
-389 633 1174 0 0 0
-383 632 1173 0 0 0
-378 632 1174 0 0 0
-373 632 1176 0 0 0
-368 632 1177 0 0 0
-362 632 1178 0 0 0
-357 633 1180 0 0 0
-352 633 1181 0 0 0
-347 633 1182 0 0 0
-341 631 1180 0 0 0
-336 631 1181 0 0 0
-331 631 1183 0 0 0
-325 631 1183 0 0 0
-320 631 1184 0 0 0
-315 632 1186 0 0 0
-309 631 1185 0 0 0
-304 630 1185 0 0 0
-299 631 1187 0 0 0
-294 631 1188 0 0 0
-289 631 1190 0 0 0
-284 633 1194 0 0 0
-279 633 1195 0 0 0
-274 634 1197 0 0 0
-268 633 1196 0 0 0
-263 632 1196 0 0 0
-258 633 1197 0 0 0
-253 634 1200 0 0 0
-247 633 1199 0 0 0
-242 633 1200 0 0 0
-236 632 1198 0 0 0
-231 630 1196 0 0 0
-225 628 1193 0 0 0
-220 628 1194 0 0 0
-214 629 1195 0 0 0
-210 629 1197 0 0 0
-205 630 1199 0 0 0
-199 630 1199 0 0 0
-194 628 1197 0 0 0
-188 628 1197 0 0 0
-183 628 1197 0 0 0
-177 627 1195 0 0 0
-172 625 1193 0 0 0
-166 621 1186 0 0 0
-158 612 1168 0 0 0
-148 590 1127 0 0 0
-139 576 1101 0 0 0
-133 569 1087 0 0 0
-128 566 1083 0 0 0
-122 565 1080 0 0 0
-118 564 1080 0 0 0
-113 564 1079 0 0 0
-108 564 1080 0 0 0
-104 563 1079 0 0 0
-99 563 1079 0 0 0
-94 562 1078 0 0 0
-89 562 1077 0 0 0
-84 561 1075 0 0 0
-80 559 1073 0 0 0
-75 558 1071 0 0 0
-70 557 1068 0 0 0
-65 554 1064 0 0 0
-60 553 1062 0 0 0
-56 551 1058 0 0 0
-51 550 1055 0 0 0
-46 548 1052 0 0 0
-42 546 1048 0 0 0
-37 543 1042 0 0 0
-32 540 1038 0 0 0
-28 538 1033 0 0 0
-23 535 1028 0 0 0
-18 533 1024 0 0 0
-14 531 1020 0 0 0
-10 528 1015 0 0 0
-5 526 1010 0 0 0
-1 524 1006 0 0 0
4 522 1002 0 0 0
8 519 998 0 0 0
12 518 995 0 0 0
16 516 991 0 0 0
21 514 987 0 0 0
25 512 984 0 0 0
29 511 981 0 0 0
33 509 977 0 0 0
37 507 973 0 0 0
41 506 971 0 0 0
45 504 967 0 0 0
49 501 961 0 0 0
53 495 951 0 0 0
56 488 936 0 0 0
59 483 927 0 0 0
63 482 924 0 0 0
67 479 918 0 0 0
70 475 911 0 0 0
73 471 903 0 0 0
77 467 895 0 0 0
80 463 887 0 0 0
83 458 878 0 0 0
86 454 870 0 0 0
89 450 862 0 0 0
92 447 856 0 0 0
95 445 852 0 0 0
99 444 849 0 0 0
102 444 849 0 0 0
106 444 848 0 0 0
110 444 848 0 0 0
114 445 850 0 0 0
118 448 856 0 0 0
123 451 861 0 0 0
140 459 874 0 0 0
163 440 834 0 0 0
173 437 828 0 0 0
202 436 822 0 0 0
226 434 814 0 0 0
263 448 833 0 0 0
269 446 829 0 0 0
275 443 821 0 0 0
283 438 810 0 0 0
299 446 822 0 0 0
305 449 827 0 0 0
307 448 823 0 0 0
313 451 828 0 0 0
318 448 820 0 0 0
331 455 831 0 0 0
344 457 832 0 0 0
359 448 809 0 0 0
365 450 813 0 0 0
373 455 821 0 0 0
379 454 816 0 0 0
384 455 816 0 0 0
390 457 820 0 0 0
393 456 817 0 0 0
399 460 822 0 0 0
406 463 826 0 0 0
408 461 821 0 0 0
410 459 817 0 0 0
414 459 816 0 0 0
417 458 812 0 0 0
419 457 809 0 0 0
423 457 808 0 0 0
427 457 806 0 0 0
430 456 803 0 0 0
433 455 801 0 0 0
436 454 798 0 0 0
440 454 797 0 0 0
442 453 793 0 0 0
446 453 792 0 0 0
451 454 792 0 0 0
455 454 791 0 0 0
458 454 789 0 0 0
463 455 789 0 0 0
465 454 786 0 0 0
468 453 783 0 0 0
472 453 782 0 0 0
476 453 781 0 0 0
480 454 780 0 0 0
486 455 781 0 0 0
490 455 780 0 0 0
492 454 776 0 0 0
524 469 796 0 0 0
531 472 799 0 0 0
534 471 795 0 0 0
750 634 1056 0 0 0
753 632 1051 0 0 0
759 633 1050 0 0 0
767 635 1051 0 0 0
770 633 1045 0 0 0
772 631 1039 0 0 0
778 631 1037 0 0 0
784 631 1035 0 0 0
791 633 1035 0 0 0
798 634 1035 0 0 0
804 635 1034 0 0 0
812 637 1034 0 0 0
817 637 1031 0 0 0
821 636 1027 0 0 0
825 635 1023 0 0 0
830 635 1020 0 0 0
836 635 1018 0 0 0
842 636 1016 0 0 0
845 634 1011 0 0 0
852 635 1010 0 0 0
855 634 1005 0 0 0
862 635 1004 0 0 0
862 631 995 0 0 0
866 630 990 0 0 0
865 625 980 0 0 0
866 623 973 0 0 0
864 618 962 0 0 0
866 616 956 0 0 0
868 614 950 0 0 0
872 612 945 0 0 0
876 612 941 0 0 0
883 613 940 0 0 0
892 616 942 0 0 0
900 618 942 0 0 0
911 622 945 0 0 0
923 626 948 0 0 0
927 626 944 0 0 0
927 622 936 0 0 0
919 613 919 0 0 0
907 602 899 0 0 0
893 589 877 0 0 0
881 578 858 0 0 0
871 569 841 0 0 0
866 562 828 0 0 0
861 556 816 0 0 0
858 551 806 0 0 0
856 547 797 0 0 0
855 544 789 0 0 0
856 541 782 0 0 0
855 538 774 0 0 0
855 535 767 0 0 0
855 532 760 0 0 0
856 530 754 0 0 0
857 528 748 0 0 0
859 527 743 0 0 0
861 525 738 0 0 0
863 524 733 0 0 0
864 522 727 0 0 0
866 521 722 0 0 0
869 519 717 0 0 0
872 519 713 0 0 0
875 518 709 0 0 0
879 518 705 0 0 0
883 518 702 0 0 0
888 518 699 0 0 0
891 518 695 0 0 0
897 519 693 0 0 0
904 520 691 0 0 0
910 521 689 0 0 0
916 522 687 0 0 0
922 523 685 0 0 0
932 526 685 0 0 0
942 529 686 0 0 0
-1027 682 1004 0 0 0
-1024 684 1010 0 0 0
-1022 686 1017 0 0 0
-986 681 1026 0 0 0
-979 680 1028 0 0 0
-971 678 1029 0 0 0
-964 678 1031 0 0 0
-959 677 1034 0 0 0
-954 678 1038 0 0 0
-948 678 1041 0 0 0
-945 680 1047 0 0 0
-937 678 1047 0 0 0
-930 677 1049 0 0 0
-923 676 1050 0 0 0
-918 676 1054 0 0 0
-911 676 1056 0 0 0
-908 677 1061 0 0 0
-900 676 1062 0 0 0
-897 677 1067 0 0 0
-889 675 1067 0 0 0
-881 673 1067 0 0 0
-872 671 1066 0 0 0
-848 665 1065 0 0 0
-839 662 1063 0 0 0
-830 660 1062 0 0 0
-822 657 1061 0 0 0
-813 654 1059 0 0 0
-806 653 1059 0 0 0
-801 653 1062 0 0 0
-794 652 1063 0 0 0
-788 652 1065 0 0 0
-781 650 1065 0 0 0
-776 651 1068 0 0 0
